# .PCD v0.7 - Point Cloud Data file format
VERSION 0.7
FIELDS x y z
SIZE 4 4 4
TYPE F F F
COUNT 1 1 1
WIDTH 721
HEIGHT 1
VIEWPOINT 0 0 0 1 0 0 0
POINTS 721
DATA ascii
-0.052826457 -0.16400126 -0.0070627034
-0.067071117 -0.14957361 -0.0079227388
-0.10518869 -0.10388839 0.0023391843
-0.14496461 -0.057393074 0.011009872
-0.16049191 -0.050902158 -0.0061898232
-0.056035049 -0.16491866 -0.0063335299
-0.06529215 -0.15805951 -0.010531425
-0.080709495 -0.14044568 -0.006634891
-0.133627 -0.082265019 0.0027954876
-0.1474905 -0.070029765 0
-0.15056247 -0.066678345 0.00050508976
-0.15791383 -0.064434648 -0.0084204674
-0.073479153 -0.15303411 0.0025710762
-0.088392891 -0.14599966 -0.008664906
-0.12222404 -0.11514652 -0.0082886219
-0.13948351 -0.099698007 -0.0085885525
-0.066516973 -0.15326226 0.021170229
-0.068004802 -0.15271027 0.019906849
-0.080429859 -0.14717169 0.010966122
-0.088177405 -0.14626031 0.0010145009
-0.10606313 -0.13045952 0.0016605854
-0.11930669 -0.12203723 -0.0035003722
-0.13644117 -0.10517654 0.0001039207
-0.083434574 -0.14431623 0.019948035
-0.095543198 -0.14057823 0.0092698634
-0.075952388 -0.16822256 -0.0022349656
-0.1143169 -0.12952137 0.012571424
0.16314194 -0.06868279 0.0037616491
0.14682288 -0.090618044 0.015887201
0.14546564 -0.091129333 0.0074976385
0.13280952 -0.11763334 0.0070947409
0.17221175 -0.035387725 -0.0065010786
0.14179355 -0.096175492 0.00029665232
0.12972485 -0.10589108 0.020311475
0.17378289 -0.019396067 -0.0087516904
0.15707175 -0.049868673 0.0011182427
0.14099979 -0.090031147 -0.0021884739
0.12610823 -0.11594516 0.0081516504
0.17536601 0.0067078471 -0.002684176
0.16000308 -0.028096586 0.0012944341
0.15587802 -0.03229326 0.0083575249
0.13769494 -0.080028027 0.0055122375
0.12919238 -0.10564348 0.00036472082
0.12252146 -0.11545825 0.0083054304
0.11767404 -0.1107972 0.027811795
0.15711799 -0.0076201856 0.015275449
0.14511138 -0.040710419 0.014074981
0.12236023 -0.11361662 0.00019264221
0.11619264 -0.12214088 0.0093059838
0.1559777 0.0072155595 0.017277062
0.11310426 -0.12205368 0.0097071826
0.16532841 0.037907958 -0.001319319
0.15638302 0.026224434 0.016034603
0.11454356 -0.11798614 -0.0010641515
0.11376028 -0.11911678 0.00034743547
0.10883436 -0.13176471 0.0031342804
0.15775852 0.047007024 0.0093224049
0.15008515 0.02888608 0.017311096
0.10953619 -0.12306854 -0.00059640408
0.10514377 -0.12936884 0.0084174871
0.10292795 -0.13296883 0.012515157
0.15784422 0.061001778 -0.0023326278
0.15695849 0.05988434 -0.00015163422
0.14684692 0.036542833 0.013686121
0.10290929 -0.131172 0.0047546923
0.15535843 0.069155514 -0.011960864
0.14975813 0.063830972 0.005035609
0.14107016 0.041309178 0.016910851
0.10342301 -0.12326857 0.00044214725
0.098846339 -0.13454933 0.0073765218
0.14774983 0.079821348 -5.6236982e-05
0.13155791 0.016134501 0.0060200095
0.097396463 -0.133837 0.0038326085
0.14352405 0.079329908 -0.014863193
0.13459164 0.07411173 0.020661294
0.13330388 0.065250874 0.01809448
0.12628582 0.027235687 0.013864607
0.09690994 -0.12929647 -0.0010994375
0.091894545 -0.14110836 0.010577768
0.13186029 0.082918584 0.0081910789
0.12032299 0.029939055 0.016199857
0.095094845 -0.13009802 -0.0060346127
0.091542803 -0.13934109 0.0029482245
0.088554725 -0.14893822 0.0088644028
0.12638769 0.1013099 0.013346374
0.11276538 0.024997026 0.019322842
0.089547589 -0.14487112 -0.0041407049
0.086855322 -0.15298124 0.003128171
0.12484999 0.1174528 -0.0080323517
0.12243854 0.11258531 0.0017231703
0.10781683 0.022594213 0.012620419
0.086958319 -0.14325395 -0.0013064444
0.11743493 0.11793077 -0.0099907815
0.11368724 0.11187029 0.0085507035
0.10070156 0.024120867 0.023726463
0.10020572 0.022765756 0.02578491
0.084316395 -0.14719063 -0.0013251305
0.11081411 0.13007802 -0.0087490082
0.10689838 0.12433606 0.013631821
0.095288232 0.018806636 0.021297365
0.082847588 -0.13987273 -0.00033047795
0.10281439 0.14363664 -0.0037032664
0.099694923 0.13547748 0.014663547
0.088712722 0.022049844 0.031124294
0.080663681 -0.14543214 -0.0045079589
0.094725668 0.13341188 -0.014002591
0.091918126 0.1421501 0.013230234
0.083051912 0.020611227 0.031653911
0.078205861 -0.14065358 -0.00078913569
0.086270347 0.15288609 -0.0056367815
0.083996162 0.14465606 0.01305455
0.077820167 0.010373771 0.028985143
0.075875141 -0.095532686 0.014473855
0.075981185 -0.138751 0.00013402104
0.073339194 0.0092550814 0.027102351
0.074057825 -0.14240137 -0.0017621815
0.070392087 0.15780681 -0.0088786483
0.067843564 0.013209373 0.035302132
0.071864232 -0.14988467 0.00042247772
0.061077613 0.144593 0.0063136816
0.062260255 0.01922664 0.042177916
0.070532843 -0.15567842 -0.0065052509
0.052660685 0.15480733 0.0076996684
0.057140835 0.019624233 0.048234761
0.068204217 -0.14928311 -0.0031532347
0.044653662 0.15560859 0.0075664818
0.05216752 0.02288723 0.050223231
0.063445039 -0.11420152 0.0069361329
0.066182546 -0.1470468 -0.0041397214
0.066219404 -0.14831494 -0.0027704239
0.035402577 0.16459769 0.0085694194
0.035504401 0.16190791 0.013944209
0.048334572 0.009834826 0.052513421
0.048421949 0.0083166957 0.054550648
0.061066885 -0.11556503 0.0023124218
0.064349197 -0.1494381 -0.0045440793
0.027583919 0.1583727 0.015274376
0.062387977 -0.1502589 0.004973948
0.01944299 0.16225576 0.010590732
0.021321911 0.14801806 0.023188233
0.036647514 0.031997085 0.053185582
0.037776601 0.023420662 0.049820244
0.037259117 0.027399659 0.056217611
0.037770215 0.023536146 0.05647856
0.038484063 0.018125832 0.055470049
0.03909412 0.013507932 0.055046231
0.039399076 0.011217356 0.056473434
0.060884319 -0.15170377 -0.0051771104
0.0099788457 0.17140841 -0.0080879331
0.010831092 0.16766059 0.013696522
0.011447806 0.16370028 0.014993131
0.020044366 0.10893494 0.037205279
0.031953953 0.031630635 0.049638271
0.035144884 0.010959446 0.052968144
0.036052343 0.0048336387 0.051243454
0.04986649 -0.088077813 0.027769893
0.059279956 -0.1528277 -0.0040575862
0.00059109181 0.17722732 0.0054433346
0.0079045296 0.13496631 0.0063815713
0.012562405 0.10981151 0.018133521
0.015686732 0.09319365 0.027512074
0.016972873 0.088999271 0.048058242
0.03017634 0.0097799301 0.029930681
0.032220669 -0.00027674437 0.040817291
0.046905272 -0.087469548 0.025260478
0.057502743 -0.15340768 -0.0050037205
0.057757743 -0.15465134 -0.0036631525
-0.0072366223 0.1677832 -0.012139857
-0.00058628619 0.1386891 0.012362033
0.0055816062 0.10806566 0.017618239
0.0074058324 0.1012798 0.02985701
0.0088984296 0.093216836 0.028023452
0.013044093 0.073297679 0.034541547
0.026994672 0.0021437705 0.036714643
0.043015011 -0.081908464 0.027580827
0.056589998 -0.15773866 -0.0019352734
-0.016214572 0.17251951 0.0079632103
-0.0058445744 0.12373757 0.0047338605
-0.00089171156 0.10363856 0.015666842
0.0028619617 0.088934779 0.025960147
0.023451529 -0.0055694282 0.027943164
0.038523611 -0.075870752 0.024530143
0.0544152 -0.1580669 -0.010468364
-0.027752429 0.1774258 -0.0087080598
-0.02141095 0.155384 0.0067338049
-0.011920713 0.12180406 0.027639985
-0.0040576532 0.088649333 0.026660681
0.011833709 0.022899568 0.028767645
0.020756196 -0.017097473 0.019398242
0.022996083 -0.021176666 0.03715986
0.034357488 -0.06956166 0.033597022
0.053471476 -0.15957245 -0.0016960502
-0.031110436 0.15702778 0.0022483468
0.006595999 0.017980665 0.01683566
0.016046196 -0.014263153 0.028267503
0.028431151 -0.059315443 0.034502447
0.028941281 -0.060684294 0.036238402
0.050542749 -0.15813512 -0.010742933
-0.042272851 0.16052264 -0.014277339
-0.038270019 0.15454119 0.0090205073
0.015064701 -0.024907947 0.032262653
0.021262586 -0.04397887 0.039889216
0.049126737 -0.15434168 0.0039895177
-0.050027557 0.15769297 -0.014103681
-0.046115354 0.15080029 0.00193578
0.0027178004 -0.0090460777 0.0018643141
0.0089732632 -0.021166354 0.024238288
0.011891428 -0.025296807 0.038735807
0.016927879 -0.037874341 0.049102485
0.046768121 -0.1554866 -0.0052034855
0.047282554 -0.15667111 -0.0038893819
0.049349591 -0.15413854 0.020853221
-0.056796826 0.16080832 0.0090988874
-0.0010947362 -0.003336221 0.024627119
0.0051575713 -0.019280195 0.032647282
0.010760818 -0.030739009 0.047044367
0.045345534 -0.15547721 -0.0024677515
-0.06478668 0.15713793 0.0058344007
0.0052069873 -0.032377839 0.031558394
0.0085534081 -0.035838962 0.046478897
0.043645404 -0.15782934 -0.0074721873
-0.066323645 0.1215634 -0.02962029
-0.070157312 0.14667267 0.0057451129
-0.0043552145 -0.019529909 0.028869748
0.0036215633 -0.033198416 0.046903491
0.042879671 -0.16338745 -0.013345718
0.044125766 -0.15251449 0.020105064
-0.077726878 0.14323282 0.006313622
-0.012905337 -0.0094031096 0.029752642
-0.0016678199 -0.031563371 0.043566942
0.04003273 -0.15397967 0.0025133491
0.040987477 -0.15645051 0.002327621
0.041545756 -0.1569563 0.0043637455
0.041980028 -0.15682362 0.0071494281
-0.084921934 0.13787067 0.0060833097
-0.017234795 -0.013400316 0.025285929
-0.0031250864 -0.03981784 0.040557295
-0.003422372 -0.02460447 0.072862089
0.040553492 -0.16765691 -0.0149858
0.042286411 -0.16196644 0.0067039132
-0.09127786 0.12980914 0.0045585036
-0.026262648 -0.0053207576 0.024989158
-0.020853572 -0.011697441 0.037226349
-0.018957242 -0.014142871 0.041057467
-0.0080154128 -0.036625743 0.044960022
0.037173834 -0.16295667 -0.011741519
-0.10060608 0.13172603 0.008774966
-0.031062238 -0.0016970634 0.035695851
-0.010248698 -0.040534973 0.045927763
0.034649707 -0.15497202 0.0027130246
-0.11140532 0.13001615 -0.0015268624
-0.058761127 0.04611063 0.042360961
-0.051108144 0.035939872 0.052932501
-0.048561998 0.030157894 0.051445842
-0.046742849 0.026672423 0.051729202
-0.043761417 0.019400686 0.048942178
-0.025534563 -0.019764602 0.042918116
-0.02343154 -0.02215448 0.046656132
-0.022376172 -0.023361415 0.048516005
-0.021108694 -0.025305539 0.049719065
-0.018783294 -0.028478354 0.052744925
-0.016295262 -0.034769356 0.049949646
-0.017060898 -0.029512942 0.057725459
-0.017789237 -0.024306327 0.0655514
0.032038242 -0.15648469 -0.0034162998
-0.12731355 0.12107071 -0.0019954145
-0.081043713 0.054451168 0.030548692
-0.070415325 0.040794492 0.041303694
-0.068404123 0.037399292 0.041702777
-0.067198254 0.036302745 0.043833971
-0.065989017 0.035197377 0.045959085
-0.063991688 0.031798393 0.046299398
-0.062262595 0.029161841 0.047209799
-0.026897848 -0.037465304 0.040190339
0.029620595 -0.16271022 -0.0089933872
0.034031127 -0.16431725 0.0035477579
-0.13405508 0.089990854 -0.020634234
-0.11265644 0.073584557 0.015308291
-0.098011397 0.050822139 0.01724875
-0.080041163 0.025299281 0.024332225
-0.034812592 -0.037781239 0.044302464
0.028592832 -0.16406006 -0.0020154119
-0.10563204 0.049200714 0.017229348
-0.10432083 0.048314393 0.019426852
-0.087297596 0.024873197 0.024831355
-0.037583284 -0.04249692 0.042572051
0.028730433 -0.16876034 -0.0043812096
-0.15170979 0.087914497 -0.012609422
-0.10464861 0.031781733 0.01189208
-0.046984427 -0.039002955 0.037864804
0.022424458 -0.16669142 -0.012215495
-0.14933226 0.064561248 -0.021673441
-0.15035847 0.081814438 0.0082740188
-0.14744622 0.077944517 0.0086442828
-0.14233351 0.069387943 0.0059586465
-0.14386076 0.074885309 0.012326539
-0.14060974 0.070230424 0.012105644
-0.11765837 0.036213607 0.0083521903
-0.042481489 -0.055274546 0.033550143
0.019716963 -0.15760022 0.0038631558
0.025349723 -0.15883739 0.016287476
-0.15054965 0.050175011 -0.025663763
-0.12694296 0.034150153 0.0032282472
-0.045784347 -0.059788376 0.029565364
0.014075063 -0.15668239 -0.0028149486
0.024212038 -0.16407853 0.0084927082
-0.14159626 0.039991021 0.0013064146
-0.14015326 0.039327413 0.0034796596
-0.051531009 -0.05811134 0.031586349
0.01463227 -0.16219765 -0.0057083964
-0.16702843 0.055053174 -0.0044846535
-0.15284577 0.041569859 0.0023168325
-0.15135428 0.040951997 0.0045023561
-0.061185978 -0.058345199 0.02257973
0.0044917092 -0.15128675 -0.0023072958
0.016270228 -0.16486235 -0.0011337399
0.022242881 -0.16150145 0.018212706
-0.17085382 0.041469038 -0.012811482
-0.15728909 0.03895852 0.011138856
-0.05863592 -0.067274183 0.02479431
0.0091331489 -0.16366386 -0.0086227655
-0.15509605 0.017943591 -0.00070768595
-0.063952975 -0.070228338 0.020913035
0.0074025244 -0.16462317 -0.0081433356
-0.17436734 0.024672955 -0.0052051842
-0.1591216 0.013922304 0.0042157471
-0.068814039 -0.073981881 0.016441941
-0.065522321 -0.065156698 0.038406014
0.0089976788 -0.16584241 -0.0021137893
0.016574904 -0.1620483 0.018828422
-0.16863674 0.010143787 -5.4836273e-06
-0.16704085 0.0096953511 0.0020415485
-0.067973003 -0.082630098 0.01410538
0.0023980737 -0.16776974 -0.012295395
-0.17053905 -0.0047476292 -0.0092822611
-0.1602844 -0.0037261248 0.0097789168
-0.070188783 -0.087289065 0.013563395
-0.0035434291 -0.1632019 -0.0086856782
-0.15788242 -0.017915905 0.0069898069
-0.08829733 -0.080174416 0.0082286894
-0.076095633 -0.086663365 0.016189188
-0.00055523589 -0.16816178 -0.0070485175
-0.16001779 -0.02820915 0.0025057197
-0.096866213 -0.080299556 0.0065602958
-0.077203996 -0.095488995 0.0095903277
-0.004850328 -0.17131333 -0.014054149
-0.16137546 -0.041789293 -0.0064709783
-0.14860386 -0.046083599 0.0042284131
-0.077500187 -0.10574153 0.0017665029
-0.033157177 -0.14551175 -0.0042845905
-0.0048219338 -0.16737296 -0.0020519793
-0.15122014 -0.061558276 -0.01061061
-0.13907969 -0.062527984 0.0039731264
-0.095568635 -0.095510721 0.0053950846
-0.082568191 -0.10172641 0.012068778
-0.046165489 -0.14009224 -0.0053215623
-0.019193791 -0.16139817 -0.0059912503
-0.016296431 -0.16240503 -0.0038624108
-0.14971113 -0.067300022 -0.0036990047
-0.13975936 -0.068896532 0.0061256886
-0.13935676 -0.067178309 0.0095745623
-0.1368252 -0.068812966 0.0099697709
-0.12060305 -0.080694824 0.010091782
-0.090698846 -0.10501254 0.0061692297
-0.056670524 -0.14107335 -0.012663782
-0.017475948 -0.1651314 -0.0045231283
-0.010548562 -0.15939669 0.013967276
-0.1295571 -0.086845964 0.00078383088
-0.02151753 -0.16696183 -0.0072283447
-0.017175101 -0.15800542 0.013132006
-0.017035596 -0.15482776 0.018695921
-0.14038497 -0.092705905 -0.0091746747
-0.12134447 -0.10108471 -0.0020304024
-0.11372446 -0.096370548 0.014480561
-0.10992446 -0.097583264 0.016680121
-0.10975517 -0.095296681 0.020739496
-0.10535815 -0.10010582 0.0175201
-0.059560232 -0.14320007 -0.0041888654
-0.031339765 -0.16203018 -0.0045266449
-0.022175096 -0.16443411 0.0016305745
-0.11640265 -0.1099346 -0.0001167953
-0.046540812 -0.15871783 -0.008944273
-0.027066022 -0.16799237 -0.0041581988
-0.021446571 -0.15795463 0.018596709
-0.11237822 -0.12361276 -0.0084561408
-0.076184966 -0.14379328 -0.0066297948
-0.056228757 -0.15379995 -0.0037634969
-0.054648764 -0.1540776 -0.0026758015
-0.040135078 -0.16014625 0.0014221668
-0.085362948 -0.1444529 -0.0083485544
-0.073725641 -0.14644921 -0.00094518065
-0.07210286 -0.14666604 0.00018915534
-0.05670058 -0.15849589 -0.0053294599
-0.047143459 -0.16001476 0.00094026327
-0.037472412 -0.16170955 0.0070174038
-0.082629584 -0.1479068 -0.0031384826
-0.071825571 -0.14791636 0.0061256886
-0.052647829 -0.15772295 0.0063244402
-0.043067105 -0.15194891 0.024109423
-0.10006204 -0.13420507 0.014023095
-0.089572005 -0.1349843 0.021088272
-0.066659905 -0.15194915 0.011320055
-0.053924285 -0.15171649 0.021825492
-0.097799338 -0.11586288 0.054812312
0.12432747 -0.10218012 0.024500877
0.13163355 -0.097868979 0.018325865
0.11405794 -0.116584 0.015170038
0.11819609 -0.11392844 0.011616617
0.13009782 -0.10840207 -0.0014252663
0.10568023 -0.12164289 0.015875697
0.12187216 -0.1094107 0.0028909743
0.14967138 -0.067005247 0.0088288784
0.096313313 -0.12938872 0.016339421
0.10257205 -0.12591313 0.0090885162
0.10411118 -0.12292525 0.010099083
0.1053945 -0.12197986 0.0089164078
0.11481886 -0.11953798 -0.0056702793
0.12844598 -0.093327582 0.0029362738
0.12975991 -0.092445105 0.0016105175
0.13843319 -0.088647276 -0.0098025501
0.097762838 -0.13530296 -0.00085747242
0.10994373 -0.11720937 -0.0015044212
0.14317507 -0.062683284 0.0033698678
0.15703705 -0.046590805 -0.0032633245
0.095654383 -0.13231263 0.00052127242
0.1246172 -0.080463201 0.0070474148
0.14190657 -0.048051059 0.012792587
0.15247816 -0.040688515 0.0002643466
0.082048267 -0.13838936 0.015125871
0.092206202 -0.13102509 0.0023639202
0.10014644 -0.11528972 0.0050832331
0.10139648 -0.11358279 0.0045298338
0.12352984 -0.07693693 0.0028807819
0.14991385 -0.024102151 0.012515336
0.15271965 -0.021421552 0.0097931921
0.08515998 -0.13844971 0.002027601
0.09397836 -0.12890542 -0.0060941577
0.13996568 -0.03347671 0.0089502633
0.15983734 -9.9390745e-05 0.0054919124
0.079747736 -0.14097799 0.0049426258
0.086142637 -0.13322306 -0.00074928999
0.15406482 0.0052085519 0.00829041
0.077456072 -0.14377725 0.00070682168
0.083970971 -0.12978026 0.0015037358
0.095262177 -0.098233968 0.011835545
0.15737426 0.024396718 0.0057665706
0.16355437 0.029294312 -0.0038566887
0.076137342 -0.14555421 -0.004666537
0.15215111 0.034466416 0.012045234
0.16008835 0.043906182 0.0023761988
0.064072952 -0.14657496 0.02070564
0.07029964 -0.15156092 -0.0026119649
0.077015489 -0.13560808 -0.0022450089
0.14396331 0.034402132 0.014146447
0.15553463 0.049664855 0
0.068376116 -0.14786363 0.00070905685
0.08330337 -0.10137197 0.011592358
0.13470128 0.026832879 0.011182725
0.14977103 0.060716599 0.0066198111
0.067100599 -0.15043573 -0.0053050518
0.12713188 0.027888417 0.014666796
0.12924659 0.030183762 0.010738224
0.14656705 0.071620643 0.0047768056
0.059556734 -0.1485935 0.014078707
0.064950973 -0.15624715 -0.012283295
0.078600198 -0.093911171 0.013755947
0.12089057 0.02541855 0.010289788
0.13134933 0.058122337 0.01300922
0.14444286 0.081378341 -0.0037317574
0.056337915 -0.15488552 0.011743337
0.06232962 -0.14707492 -0.00030010939
0.0638154 -0.14469177 -0.0027928352
0.074658155 -0.099645585 0.0097611547
0.11188792 0.0244174 0.018554628
0.12184733 0.052841127 0.015550464
0.12376707 0.061459839 0.018467575
0.13598275 0.083528578 0.0004965961
0.060463831 -0.15231855 -0.0064565837
0.10492079 0.013845801 0.011735976
0.11245093 0.034473598 0.0065740347
0.12701844 0.090552896 0.014187336
0.13281968 0.097616017 0.0005581677
0.056589648 -0.15448219 -0.0014996529
0.098486267 0.016410261 0.017477483
0.11042055 0.042055726 -0.0017106533
0.12205503 0.10002017 0.014592409
0.12695205 0.10205767 -0.002335459
0.053532623 -0.15789397 -0.0082781315
0.085290536 0.018539697 0.02751714
0.09223637 0.043685615 0.021875441
0.11022329 0.11375982 0.01210922
0.11779833 0.13395923 -0.0013332069
0.051244929 -0.15914512 -0.0071627796
0.052278638 -0.15669788 -0.009658128
0.079026952 0.015663028 0.03005895
0.048020497 -0.16361806 -0.0042817891
0.054985799 -0.1037831 0.015417397
0.073381215 0.016417831 0.0324817
0.097590804 0.123586 0.0077357292
0.10156289 0.1275205 -0.0088860393
0.047649212 -0.16269736 -0.011045903
0.052582659 -0.098836184 0.017162502
0.066968955 0.013256788 0.035125792
0.090411112 0.13923675 0.014917105
0.094386667 0.13761878 -0.0084350705
0.044865217 -0.15338117 0.0020262897
0.045258477 -0.15209144 0.00072902441
0.049711645 -0.098133743 0.017634422
0.061955649 0.018313885 0.038177341
0.081867456 0.12781602 0.0068607032
0.086675271 0.15253896 -0.0021602809
0.042634211 -0.1601567 0.00011357665
0.046515658 -0.09671396 0.021784782
0.057595547 0.025516868 0.039876223
0.075118303 0.13661784 0.0073275268
0.042000167 -0.15719602 -0.004475981
0.044088926 -0.090430945 0.024977624
0.052105457 0.017145365 0.039238364
0.066455439 0.13992661 0.018013746
0.071212962 0.15126616 -0.0085601807
0.040644553 -0.16947676 -0.014999509
0.041522622 -0.081300914 0.027892917
0.045962527 0.016622007 0.048000932
0.061066188 0.14642715 0.00088971853
0.037787333 -0.16296303 -0.0020080507
0.039118886 -0.086661488 0.020001471
0.03950721 0.0026870072 0.055945814
0.041057799 0.018068194 0.048920751
0.0520055 0.15177375 0.0096187592
0.054567568 0.15111095 -0.013710797
0.035680532 -0.16129513 0.0031037629
0.035897631 -0.073922724 0.02621749
0.036343224 0.0038914979 0.04399544
0.044637728 0.16009504 0.0034890175
0.034722399 -0.16566367 -0.0040510595
0.032744706 -0.072054327 0.028218776
0.032301169 0.0035121739 0.040598154
0.036425877 0.15189487 0.0054445863
0.03795708 0.16365331 -0.011663973
0.0329009 -0.16603489 -0.0011399984
0.028742922 -0.064396411 0.038747609
0.028954711 -0.061467916 0.035304278
0.028199553 -0.00013226271 0.034785181
0.027829675 0.15539569 0.010525197
0.03157267 -0.16144486 -0.0089620054
0.025517713 -0.061227679 0.03602165
0.023369469 -0.0035880804 0.038703442
0.023450395 0.011297077 0.028329909
0.019113794 0.15378666 0.016477287
0.029677 -0.16311447 -0.0047026873
0.020844618 -0.047053754 0.049571306
0.019501077 -0.014800847 0.039571911
0.019962102 -0.010833889 0.024183154
0.013461862 0.095998406 0.036197335
0.013880391 0.10481104 0.015251756
0.011821639 0.14067757 0.01620394
0.012207154 0.13769633 0.01118052
0.011822268 0.14428902 0.011493325
0.028306607 -0.16749935 -0.0033894181
0.017685853 -0.047626406 0.046547949
0.015882447 -0.013865769 0.022425741
0.010074981 0.059726715 0.029119372
0.0074373111 0.093292594 0.031638741
0.0078038834 0.090519905 0.026567996
0.0072044022 0.097839683 0.027895302
0.0066856891 0.10433543 0.028638333
0.0067164861 0.10825235 0.017796099
0.0065754391 0.11185396 0.013372958
0.0044641197 0.14078051 0.0099995732
0.0030692741 0.1645543 -0.0041789412
0.026332211 -0.16299431 -0.0083891749
0.01353405 -0.040894866 0.047077835
0.012169018 -0.02527988 0.038563043
0.011273455 -0.014335275 0.028921157
0.010475516 -0.0066580772 0.031902194
0.010284033 -0.0044460893 0.030535012
0.0023770779 0.078062743 0.022589505
-0.00021173805 0.1060293 0.013888001
0.025277074 -0.16996592 -0.0044006705
0.0096156001 -0.03947559 0.049291372
0.0086038262 -0.030637324 0.038108498
0.0060694925 -0.0091360807 0.030884445
0.0038448535 0.010011703 0.01176095
-0.0054517277 0.087553531 0.026312917
-0.015598647 0.17294687 -0.0085838437
0.022721956 -0.16347213 -0.0043511689
0.0060653724 -0.04112944 0.042578608
0.0037312508 -0.024866313 0.037789643
0.0017952174 -0.011691123 0.029927135
-0.00020422414 0.00017431378 -5.2273273e-05
-0.01170402 0.083772063 0.024990082
-0.015989244 0.11406159 0.023963124
-0.023474738 0.16492647 -0.0014374256
0.021470223 -0.16452408 0.0092099011
0.020224653 -0.15813981 -0.00026854873
0.0020861998 -0.039104283 0.042351484
0.00016688555 -0.02915588 0.029240757
-0.0008684434 -0.022363096 0.031729013
-0.0038849711 -0.0063413978 0.014008313
-0.0046379492 -0.00458619 -0.0051300526
-0.031721465 0.16277796 -0.0046647191
0.018556375 -0.15960652 -0.0034930706
-0.0032087862 -0.032246262 0.034019381
-0.0084330961 -0.0062235296 0.021353573
-0.011409633 0.007866323 0.010721505
-0.038207158 0.15327048 0.0052556992
0.016793262 -0.16036533 -0.0031466186
-0.004516162 -0.04496941 0.039870471
-0.04649052 0.15124911 0.0058839023
0.015934292 -0.16575533 -0.0051016808
-0.0088014603 -0.043264985 0.03981638
-0.023181498 0.014902353 0.021917164
-0.05386208 0.14470941 0.0043084323
-0.058767647 0.16199076 -0.010031044
0.013158709 -0.159142 0.0033302307
-0.013261735 -0.036157221 0.053854048
-0.013744496 -0.036273003 0.047487289
-0.018771447 -0.020752609 0.032871306
-0.06249512 0.1468038 0.0074473619
0.012919094 -0.16652949 -0.00082057714
-0.017178461 -0.040781975 0.039130926
-0.025432937 -0.0066560209 0.049146891
-0.026742727 -0.010350406 0.024764866
-0.064990416 0.12524027 0.0077413023
-0.072827972 0.15240616 0.0026139021
0.0091310143 -0.16130731 -0.0042062402
-0.020432256 -0.041258633 0.046729267
-0.028337173 -0.016883731 0.039766729
-0.033926167 0.00044238567 0.035128713
-0.034374155 0.00098201632 0.032492787
-0.03547933 0.0046546757 0.03223747
-0.080107503 0.14808899 0.0095701814
-0.085660823 0.16064209 -0.0071781278
0.0069731101 -0.16179273 -0.0057753325
-0.027013436 -0.030264288 0.055319875
-0.029042721 -0.026116073 0.049585164
-0.085818775 0.13711941 0.0097212195
-0.094290607 0.15757507 -0.00590083
0.0062831901 -0.16592042 -0.0061475933
-0.029655926 -0.039533049 0.04321602
-0.039065041 -0.010561109 0.046181679
-0.040490098 -0.006162703 0.046658903
-0.041748218 -0.0025230348 0.046489179
-0.043718524 0.0042110384 0.048735172
-0.044815339 0.0070975423 0.047892243
-0.046094395 0.01076147 0.04763338
-0.048487775 0.017324299 0.046439111
-0.094944946 0.13746125 0.0061276555
-0.097833432 0.13806087 -0.012931228
0.0038669966 -0.16670632 -0.010420054
-0.035842404 -0.031669736 0.049203992
-0.03661608 -0.030346632 0.047305167
-0.045452155 -0.0067380667 0.04553473
-0.10002012 0.1286729 0.010902464
0.0020713955 -0.16325846 -2.9802322e-08
-0.039358512 -0.036708653 0.044370502
-0.061768331 0.019680381 0.041192293
-0.071092755 0.043019682 0.039627373
-0.10400929 0.11633712 0.013788581
4.6323985e-05 -0.16457863 -0.0021930933
-0.00065174326 -0.16347775 -0.0035064518
-0.043106921 -0.04032883 0.040880293
-0.069322869 0.020973861 0.035960615
-0.08146473 0.046006083 0.02634418
-0.10892031 0.10547224 0.011007845
-0.12085133 0.12675565 -0.0056042969
0.00027040392 -0.17143208 -0.0054184794
-0.043877997 -0.050108343 0.037879765
-0.071335047 0.0071635544 0.02581811
-0.12022104 0.1126945 0.012306213
-0.0021524131 -0.17083491 -0.0053586066
-0.045032948 -0.062779158 0.026844144
-0.081423394 0.017793715 0.030950785
-0.090804897 0.033506244 0.021411777
-0.12620273 0.10336781 0.0077515244
-0.1354894 0.11850709 -0.0024862289
-0.0073968992 -0.16354053 -0.0027909875
-0.047369257 -0.068540245 0.024700254
-0.09265881 0.023536325 0.023984194
-0.11564592 0.065222323 0.013322562
-0.13716215 0.10407257 0.0030529201
-0.0081367679 -0.16581598 -0.00081548095
-0.055588141 -0.058065832 0.03122732
-0.098214872 0.015728742 0.013599426
-0.11713769 0.05331099 0.01559779
-0.12445248 0.059197843 -0.001090169
-0.14068329 0.091043055 -0.00013321638
-0.0097526908 -0.17185369 -0.0098584592
-0.05538971 -0.06944868 0.02709958
-0.11087505 0.025138676 0.012631297
-0.12611499 0.051790982 0.010048032
-0.13361868 0.061228871 0.0014547706
-0.015893534 -0.16361719 -0.0057731271
-0.059277795 -0.072188526 0.025336444
-0.1231161 0.030813158 0.0094798207
-0.13392663 0.041800499 -0.0058129728
-0.15909508 0.083442092 -0.0099202394
-0.017350838 -0.16573815 -0.0056841969
-0.06575001 -0.071515024 0.021461546
-0.13613924 0.035431743 0.0029435754
-0.15623742 0.062854439 -0.0082984269
-0.015227258 -0.16116786 0.017804205
-0.020304278 -0.16740267 -0.0095545352
-0.068412557 -0.072658062 0.026353925
-0.070754789 -0.070741653 0.022940695
-0.14326614 0.029208332 -0.004683584
-0.16307607 0.056030899 -0.013090223
-0.019972712 -0.17324886 -0.01095295
-0.032818943 -0.1487354 -0.0010789335
-0.069200382 -0.084477574 0.017161578
-0.15162182 0.032852679 0.0053777099
-0.16662624 0.049090385 -0.0063866377
-0.026807629 -0.16817166 -0.011467487
-0.069250368 -0.093052983 0.015761852
-0.16100368 0.036176383 0.012916088
-0.16644713 0.039093554 0.0038964152
-0.1718224 0.037630081 -0.013107359
-0.027989425 -0.17119548 -0.011924535
-0.073108248 -0.0926947 0.019734681
-0.083373182 -0.085408956 0.00736323
-0.15652412 0.010828972 0.0014589131
